X,Y,Z,Red,Green,Blue
111,33,20.6,165,42,42
112,33,20.8,165,42,42
113,33,20.8,165,42,42
114,33,21,165,42,42
115,33,21.4,165,42,42
116,33,22,165,42,42
117,33,22.4,165,42,42
118,33,23,165,42,42
119,33,23.4,165,42,42
120,33,23.8,165,42,42
121,33,24.2,165,42,42
122,33,24.6,165,42,42
123,33,25.2,165,42,42
124,33,26,165,42,42
125,33,26.4,255,255,255
126,33,26.4,255,255,255
127,33,26,165,42,42
0,34,25.4,165,42,42
1,34,24.6,165,42,42
2,34,24,165,42,42
3,34,23.2,165,42,42
4,34,22.8,165,42,42
5,34,22.4,165,42,42
6,34,22,165,42,42
7,34,21.8,165,42,42
8,34,21.2,165,42,42
9,34,20.6,165,42,42
10,34,19.6,165,42,42
11,34,18.4,0,128,0
12,34,17.2,0,128,0
13,34,16.2,0,128,0
14,34,15.2,0,128,0
15,34,15,0,128,0
16,34,15.4,0,128,0
17,34,16,0,128,0
18,34,16.2,0,128,0
19,34,16.6,0,128,0
20,34,17,0,128,0
21,34,17.2,0,128,0
22,34,17.2,0,128,0
23,34,17,0,128,0
24,34,16.6,0,128,0
25,34,16.4,0,128,0
26,34,16.2,0,128,0
27,34,16.4,0,128,0
28,34,17,0,128,0
29,34,17.4,0,128,0
30,34,17.8,0,128,0
31,34,18.6,0,128,0
32,34,19.4,165,42,42
33,34,20,165,42,42
34,34,20.2,165,42,42
35,34,20,165,42,42
36,34,19.4,165,42,42
37,34,18.4,0,128,0
38,34,17.2,0,128,0
39,34,16,0,128,0
40,34,14.8,0,128,0
41,34,13.6,0,128,0
42,34,12.4,0,128,0
43,34,11.2,72,61,139
44,34,10.2,72,61,139
45,34,9.2,72,61,139
46,34,8.2,72,61,139
47,34,7.6,72,61,139
48,34,7.2,72,61,139
49,34,7,72,61,139
50,34,6.8,72,61,139
51,34,6.6,72,61,139
52,34,6.2,72,61,139
53,34,5.6,72,61,139
54,34,5,72,61,139
55,34,5.2,72,61,139
56,34,5.6,72,61,139
57,34,6.2,72,61,139
58,34,6.4,72,61,139
59,34,6.6,72,61,139
60,34,6.8,72,61,139
61,34,6.8,72,61,139
62,34,6.4,72,61,139
63,34,6.2,72,61,139
64,34,6.4,72,61,139
65,34,7,72,61,139
66,34,7.4,72,61,139
67,34,7.8,72,61,139
68,34,7.8,72,61,139
69,34,8,72,61,139
70,34,7.6,72,61,139
71,34,7.4,72,61,139
72,34,7,72,61,139
73,34,6.8,72,61,139
74,34,6.8,72,61,139
75,34,7.2,72,61,139
76,34,7.4,72,61,139
77,34,7.4,72,61,139
78,34,7.6,72,61,139
79,34,7.6,72,61,139
80,34,7.4,72,61,139
81,34,7.8,72,61,139
82,34,8.2,72,61,139
83,34,8.8,72,61,139
84,34,9.6,72,61,139
85,34,10.2,72,61,139
86,34,11,72,61,139
87,34,12,0,128,0
88,34,13.2,0,128,0
89,34,14.6,0,128,0
90,34,16,0,128,0
91,34,17.4,0,128,0
92,34,18.2,0,128,0
93,34,19,0,128,0
94,34,19.8,165,42,42
95,34,20.6,165,42,42
96,34,21.4,165,42,42
97,34,21.8,165,42,42
98,34,22.4,165,42,42
99,34,23,165,42,42
100,34,23.4,165,42,42
101,34,23.8,165,42,42
102,34,24,165,42,42
103,34,24.2,165,42,42
104,34,24,165,42,42
105,34,23.6,165,42,42
106,34,23,165,42,42
107,34,22.2,165,42,42
108,34,21.8,165,42,42
109,34,21.2,165,42,42
110,34,21,165,42,42
111,34,21.2,165,42,42
112,34,21.2,165,42,42
113,34,21.4,165,42,42
114,34,21.6,165,42,42
115,34,22,165,42,42
116,34,22.6,165,42,42
117,34,23.2,165,42,42
118,34,23.6,165,42,42
119,34,24,165,42,42
120,34,24.4,165,42,42
121,34,24.8,165,42,42
122,34,25,165,42,42
123,34,25.4,165,42,42
124,34,26,165,42,42
125,34,26.4,255,255,255
126,34,26.4,255,255,255
127,34,26.2,165,42,42
0,35,25.2,165,42,42
1,35,24.6,165,42,42
2,35,23.6,165,42,42
3,35,22.8,165,42,42
4,35,22.4,165,42,42
5,35,22,165,42,42
6,35,21.6,165,42,42
7,35,21,165,42,42
8,35,20.6,165,42,42
9,35,19.8,165,42,42
10,35,19,0,128,0
11,35,18,0,128,0
12,35,16.6,0,128,0
13,35,15.4,0,128,0
14,35,14.4,0,128,0
15,35,14.2,0,128,0
16,35,14.2,0,128,0
17,35,14.8,0,128,0
18,35,15.2,0,128,0
19,35,15.6,0,128,0
20,35,15.8,0,128,0
21,35,16,0,128,0
22,35,16,0,128,0
23,35,15.8,0,128,0
24,35,15.2,0,128,0
25,35,14.8,0,128,0
26,35,14.8,0,128,0
27,35,15,0,128,0
28,35,15.4,0,128,0
29,35,15.8,0,128,0
30,35,16.6,0,128,0
31,35,17.2,0,128,0
32,35,18,0,128,0
33,35,18.6,0,128,0
34,35,19.2,165,42,42
35,35,19.2,165,42,42
36,35,19.2,165,42,42
37,35,18.4,0,128,0
38,35,17.6,0,128,0
39,35,16.4,0,128,0
40,35,15.2,0,128,0
41,35,14.2,0,128,0
42,35,13,0,128,0
43,35,11.6,72,61,139
44,35,10.6,72,61,139
45,35,9.6,72,61,139
46,35,8.6,72,61,139
47,35,8.2,72,61,139
48,35,7.8,72,61,139
49,35,7.4,72,61,139
50,35,7.2,72,61,139
51,35,7,72,61,139
52,35,6.6,72,61,139
53,35,6.2,72,61,139
54,35,5.6,72,61,139
55,35,5.6,72,61,139
56,35,6,72,61,139
57,35,6.4,72,61,139
58,35,6.4,72,61,139
59,35,6.8,72,61,139
60,35,7,72,61,139
61,35,6.8,72,61,139
62,35,6.6,72,61,139
63,35,6.2,72,61,139
64,35,6.6,72,61,139
65,35,7,72,61,139
66,35,7.6,72,61,139
67,35,8,72,61,139
68,35,8.2,72,61,139
69,35,8.2,72,61,139
70,35,8.2,72,61,139
71,35,7.8,72,61,139
72,35,7,72,61,139
73,35,6.6,72,61,139
74,35,6.6,72,61,139
75,35,6.8,72,61,139
76,35,7,72,61,139
77,35,7,72,61,139
78,35,7,72,61,139
79,35,7.2,72,61,139
80,35,7.2,72,61,139
81,35,7.6,72,61,139
82,35,8,72,61,139
83,35,8.8,72,61,139
84,35,9.4,72,61,139
85,35,10.2,72,61,139
86,35,11,72,61,139
87,35,12.2,0,128,0
88,35,13.4,0,128,0
89,35,14.8,0,128,0
90,35,15.8,0,128,0
91,35,17,0,128,0
92,35,17.8,0,128,0
93,35,18.4,0,128,0
94,35,19.2,165,42,42
95,35,19.8,165,42,42
96,35,20.4,165,42,42
97,35,20.8,165,42,42
98,35,21.4,165,42,42
99,35,21.8,165,42,42
100,35,22.2,165,42,42
101,35,22.8,165,42,42
102,35,23.2,165,42,42
103,35,23.6,165,42,42
104,35,23.6,165,42,42
105,35,23.4,165,42,42
106,35,23.2,165,42,42
107,35,22.8,165,42,42
108,35,22.4,165,42,42
109,35,22.2,165,42,42
110,35,22,165,42,42
111,35,21.8,165,42,42
112,35,22,165,42,42
113,35,22,165,42,42
114,35,22.4,165,42,42
115,35,22.8,165,42,42
116,35,23.4,165,42,42
117,35,23.8,165,42,42
118,35,24.2,165,42,42
119,35,24.6,165,42,42
120,35,25,165,42,42
121,35,25.2,165,42,42
122,35,25.4,165,42,42
123,35,25.8,165,42,42
124,35,26.2,165,42,42
125,35,26.2,165,42,42
126,35,26.4,255,255,255
127,35,26,165,42,42
0,36,25.2,165,42,42
1,36,24.4,165,42,42
2,36,23.4,165,42,42
3,36,22.6,165,42,42
4,36,22,165,42,42
5,36,21.4,165,42,42
6,36,21,165,42,42
7,36,20.6,165,42,42
8,36,20,165,42,42
9,36,19.4,165,42,42
10,36,18.4,0,128,0
11,36,17.4,0,128,0
12,36,16.2,0,128,0
13,36,15,0,128,0
14,36,14.2,0,128,0
15,36,13.6,0,128,0
16,36,13.6,0,128,0
17,36,13.8,0,128,0
18,36,14,0,128,0
19,36,14.4,0,128,0
20,36,14.6,0,128,0
21,36,14.8,0,128,0
22,36,15,0,128,0
23,36,14.8,0,128,0
24,36,14,0,128,0
25,36,13.6,0,128,0
26,36,13.4,0,128,0
27,36,13.6,0,128,0
28,36,14,0,128,0
29,36,14.8,0,128,0
30,36,15.2,0,128,0
31,36,16,0,128,0
32,36,16.8,0,128,0
33,36,17.4,0,128,0
34,36,18,0,128,0
35,36,18.2,0,128,0
36,36,18.4,0,128,0
37,36,18.2,0,128,0
38,36,17.6,0,128,0
39,36,16.8,0,128,0
40,36,15.8,0,128,0
41,36,14.6,0,128,0
42,36,13.2,0,128,0
43,36,12,0,128,0
44,36,11.2,72,61,139
45,36,10,72,61,139
46,36,9.2,72,61,139
47,36,8.6,72,61,139
48,36,8.4,72,61,139
49,36,8,72,61,139
50,36,7.8,72,61,139
51,36,7.4,72,61,139
52,36,7.2,72,61,139
53,36,6.8,72,61,139
54,36,6.4,72,61,139
55,36,6.2,72,61,139
56,36,6.4,72,61,139
57,36,6.6,72,61,139
58,36,7,72,61,139
59,36,7.4,72,61,139
60,36,7.4,72,61,139
61,36,7.2,72,61,139
62,36,6.8,72,61,139
63,36,6.4,72,61,139
64,36,6.6,72,61,139
65,36,7.2,72,61,139
66,36,7.8,72,61,139
67,36,8.4,72,61,139
68,36,8.6,72,61,139
69,36,9,72,61,139
70,36,8.8,72,61,139
71,36,8.2,72,61,139
72,36,7.4,72,61,139
73,36,6.6,72,61,139
74,36,6.4,72,61,139
75,36,6.6,72,61,139
76,36,6.6,72,61,139
77,36,6.8,72,61,139
78,36,7,72,61,139
79,36,7,72,61,139
80,36,7.2,72,61,139
81,36,7.6,72,61,139
82,36,8,72,61,139
83,36,8.8,72,61,139
84,36,9.6,72,61,139
85,36,10.4,72,61,139
86,36,11.4,72,61,139
87,36,12.4,0,128,0
88,36,13.6,0,128,0
89,36,14.8,0,128,0
90,36,15.8,0,128,0
91,36,16.6,0,128,0
92,36,17.4,0,128,0
93,36,18,0,128,0
94,36,18.4,0,128,0
95,36,18.8,0,128,0
96,36,19.2,165,42,42
97,36,19.8,165,42,42
98,36,20,165,42,42
99,36,20.6,165,42,42
100,36,21.2,165,42,42
101,36,21.8,165,42,42
102,36,22.4,165,42,42
103,36,23,165,42,42
104,36,23.2,165,42,42
105,36,23.4,165,42,42
106,36,23.6,165,42,42
107,36,23.4,165,42,42
108,36,23.2,165,42,42
109,36,23,165,42,42
110,36,22.6,165,42,42
111,36,22.6,165,42,42
112,36,22.6,165,42,42
113,36,23,165,42,42
114,36,23.4,165,42,42
115,36,24.2,165,42,42
116,36,24.4,165,42,42
117,36,24.6,165,42,42
118,36,24.8,165,42,42
119,36,25,165,42,42
120,36,25.4,165,42,42
121,36,25.4,165,42,42
122,36,25.8,165,42,42
123,36,25.8,165,42,42
124,36,26,165,42,42
125,36,26.2,165,42,42
126,36,26.2,165,42,42
127,36,25.8,165,42,42
0,37,25,165,42,42
1,37,24,165,42,42
2,37,23,165,42,42
3,37,22.2,165,42,42
4,37,21.6,165,42,42
5,37,21,165,42,42
6,37,20.6,165,42,42
7,37,20,165,42,42
8,37,19.6,165,42,42
9,37,18.8,0,128,0
10,37,17.8,0,128,0
11,37,16.8,0,128,0
12,37,16,0,128,0
13,37,15,0,128,0
14,37,14,0,128,0
15,37,13.4,0,128,0
16,37,13.2,0,128,0
17,37,13.4,0,128,0
18,37,13.6,0,128,0
19,37,13.6,0,128,0
20,37,14,0,128,0
21,37,14,0,128,0
22,37,14,0,128,0
23,37,13.8,0,128,0
24,37,13.2,0,128,0
25,37,12.6,0,128,0
26,37,12.4,0,128,0
27,37,12.6,0,128,0
28,37,13.2,0,128,0
29,37,13.8,0,128,0
30,37,14.4,0,128,0
31,37,15,0,128,0
32,37,15.4,0,128,0
33,37,16,0,128,0
34,37,16.6,0,128,0
35,37,17.2,0,128,0
36,37,17.4,0,128,0
37,37,17.6,0,128,0
38,37,17.2,0,128,0
39,37,16.6,0,128,0
40,37,16,0,128,0
41,37,14.8,0,128,0
42,37,13.6,0,128,0
43,37,12.6,0,128,0
44,37,11.6,72,61,139
45,37,10.6,72,61,139
46,37,9.8,72,61,139
47,37,9.2,72,61,139
48,37,9,72,61,139
49,37,8.6,72,61,139
50,37,8.4,72,61,139
51,37,8.2,72,61,139
52,37,7.8,72,61,139
53,37,7.6,72,61,139
54,37,7.2,72,61,139
55,37,7,72,61,139
56,37,7.2,72,61,139
57,37,7.4,72,61,139
58,37,7.4,72,61,139
59,37,7.8,72,61,139
60,37,8,72,61,139
61,37,7.6,72,61,139
62,37,7,72,61,139
63,37,6.6,72,61,139
64,37,6.8,72,61,139
65,37,7.4,72,61,139
66,37,8,72,61,139
67,37,8.6,72,61,139
68,37,9.4,72,61,139
69,37,9.8,72,61,139
70,37,9.4,72,61,139
71,37,8.8,72,61,139
72,37,7.6,72,61,139
73,37,6.8,72,61,139
74,37,6.4,72,61,139
75,37,6.4,72,61,139
76,37,6.4,72,61,139
77,37,6.6,72,61,139
78,37,6.6,72,61,139
79,37,6.6,72,61,139
80,37,7.2,72,61,139
81,37,7.6,72,61,139
82,37,8.2,72,61,139
83,37,9,72,61,139
84,37,9.8,72,61,139
85,37,10.6,72,61,139
86,37,11.6,72,61,139
87,37,12.6,0,128,0
88,37,13.6,0,128,0
89,37,14.6,0,128,0
90,37,15.4,0,128,0
91,37,16,0,128,0
92,37,16.6,0,128,0
93,37,17,0,128,0
94,37,17.2,0,128,0
95,37,17.6,0,128,0
96,37,18,0,128,0
97,37,18.4,0,128,0
98,37,18.8,0,128,0
99,37,19.4,165,42,42
100,37,20,165,42,42
101,37,20.8,165,42,42
102,37,21.4,165,42,42
103,37,22.2,165,42,42
104,37,22.8,165,42,42
105,37,23.2,165,42,42
106,37,23.6,165,42,42
107,37,23.8,165,42,42
108,37,23.6,165,42,42
109,37,23.4,165,42,42
110,37,23.4,165,42,42
111,37,23.2,165,42,42
112,37,23.6,165,42,42
113,37,24,165,42,42
114,37,24.6,165,42,42
115,37,25,165,42,42
116,37,25.4,165,42,42
117,37,25.6,165,42,42
118,37,25.6,165,42,42
119,37,25.6,165,42,42
120,37,26,165,42,42
121,37,25.8,165,42,42
122,37,26,165,42,42
123,37,26,165,42,42
124,37,26,165,42,42
125,37,26.2,165,42,42
126,37,26,165,42,42
127,37,25.6,165,42,42
0,38,24.8,165,42,42
1,38,23.8,165,42,42
2,38,22.8,165,42,42
3,38,22,165,42,42
4,38,21.2,165,42,42
5,38,20.8,165,42,42
6,38,20.2,165,42,42
7,38,19.8,165,42,42
8,38,19.2,165,42,42
9,38,18.4,0,128,0
10,38,17.6,0,128,0
11,38,16.6,0,128,0
12,38,15.8,0,128,0
13,38,15,0,128,0
14,38,14.2,0,128,0
15,38,13.8,0,128,0
16,38,13.4,0,128,0
17,38,13.4,0,128,0
18,38,13.4,0,128,0
19,38,13.2,0,128,0
20,38,13.2,0,128,0
21,38,13.2,0,128,0
22,38,13.2,0,128,0
23,38,13,0,128,0
24,38,12.2,0,128,0
25,38,11.8,72,61,139
26,38,11.6,72,61,139
27,38,11.8,72,61,139
28,38,12.2,0,128,0
29,38,12.8,0,128,0
30,38,13.2,0,128,0
31,38,14,0,128,0
32,38,14.2,0,128,0
33,38,14.8,0,128,0
34,38,15.4,0,128,0
35,38,16,0,128,0
36,38,16.4,0,128,0
37,38,16.6,0,128,0
38,38,16.8,0,128,0
39,38,16.4,0,128,0
40,38,16,0,128,0
41,38,15.2,0,128,0
42,38,14.2,0,128,0
43,38,13.2,0,128,0
44,38,12,0,128,0
45,38,11.2,72,61,139
46,38,10.4,72,61,139
47,38,10,72,61,139
48,38,9.6,72,61,139
49,38,9.4,72,61,139
50,38,9,72,61,139
51,38,8.8,72,61,139
52,38,8.4,72,61,139
53,38,8.2,72,61,139
54,38,8,72,61,139
55,38,8,72,61,139
56,38,8,72,61,139
57,38,8,72,61,139
58,38,8,72,61,139
59,38,8.2,72,61,139
60,38,8.2,72,61,139
61,38,7.8,72,61,139
62,38,7.2,72,61,139
63,38,6.6,72,61,139
64,38,6.8,72,61,139
65,38,7.4,72,61,139
66,38,8.2,72,61,139
67,38,9.2,72,61,139
68,38,9.6,72,61,139
69,38,10.2,72,61,139
70,38,9.8,72,61,139
71,38,9.4,72,61,139
72,38,8.2,72,61,139
73,38,7.4,72,61,139
74,38,6.8,72,61,139
75,38,6.2,72,61,139
76,38,6,72,61,139
77,38,6.2,72,61,139
78,38,6.4,72,61,139
79,38,6.8,72,61,139
80,38,7.4,72,61,139
81,38,8,72,61,139
82,38,8.4,72,61,139
83,38,9.2,72,61,139
84,38,10,72,61,139
85,38,10.8,72,61,139
86,38,11.8,72,61,139
87,38,12.6,0,128,0
88,38,13.4,0,128,0
89,38,14.2,0,128,0
90,38,15,0,128,0
91,38,15.6,0,128,0
92,38,15.6,0,128,0
93,38,16,0,128,0
94,38,16,0,128,0
95,38,16.2,0,128,0
96,38,16.6,0,128,0
97,38,17,0,128,0
98,38,17.6,0,128,0
99,38,18,0,128,0
100,38,18.8,0,128,0
101,38,19.8,165,42,42
102,38,20.4,165,42,42
103,38,21.4,165,42,42
104,38,22,165,42,42
105,38,22.8,165,42,42
106,38,23.2,165,42,42
107,38,23.6,165,42,42
108,38,23.8,165,42,42
109,38,23.6,165,42,42
110,38,23.8,165,42,42
111,38,23.8,165,42,42
112,38,24.4,165,42,42
113,38,24.8,165,42,42
114,38,25.4,165,42,42
115,38,26,165,42,42
116,38,26.2,165,42,42
117,38,26.4,255,255,255
118,38,26.6,255,255,255
119,38,26.8,255,255,255
120,38,26.4,255,255,255
121,38,26.4,255,255,255
122,38,26.2,165,42,42
123,38,26.2,165,42,42
124,38,26.2,165,42,42
125,38,26.4,255,255,255
126,38,26,165,42,42
127,38,25.6,165,42,42
0,39,24.6,165,42,42
1,39,23.6,165,42,42
2,39,22.6,165,42,42
3,39,21.4,165,42,42
4,39,20.8,165,42,42
5,39,20.4,165,42,42
6,39,19.8,165,42,42
7,39,19.4,165,42,42
8,39,18.8,0,128,0
9,39,18,0,128,0
10,39,17,0,128,0
11,39,16.2,0,128,0
12,39,15.6,0,128,0
13,39,14.8,0,128,0
14,39,14.4,0,128,0
15,39,14,0,128,0
16,39,13.8,0,128,0
17,39,13.6,0,128,0
18,39,13.6,0,128,0
19,39,13.4,0,128,0
20,39,13,0,128,0
21,39,12.6,0,128,0
22,39,12.2,0,128,0
23,39,12,0,128,0
24,39,11.6,72,61,139
25,39,11.2,72,61,139
26,39,11,72,61,139
27,39,11,72,61,139
28,39,11.6,72,61,139
29,39,11.8,72,61,139
30,39,12.2,0,128,0
31,39,12.8,0,128,0
32,39,13.2,0,128,0
33,39,13.8,0,128,0
34,39,14.4,0,128,0
35,39,14.8,0,128,0
36,39,15.2,0,128,0
37,39,15.6,0,128,0
38,39,15.8,0,128,0
39,39,15.8,0,128,0
40,39,15.6,0,128,0
41,39,15.2,0,128,0
42,39,14.4,0,128,0
43,39,13.6,0,128,0
44,39,12.8,0,128,0
45,39,11.8,72,61,139
46,39,11,72,61,139
47,39,10.6,72,61,139
48,39,10.4,72,61,139
49,39,10,72,61,139
50,39,9.8,72,61,139
51,39,9.6,72,61,139
52,39,9,72,61,139
53,39,8.8,72,61,139
54,39,8.6,72,61,139
55,39,8.8,72,61,139
56,39,8.8,72,61,139
57,39,8.6,72,61,139
58,39,8.6,72,61,139
59,39,8.6,72,61,139
60,39,8.4,72,61,139
61,39,7.8,72,61,139
62,39,7,72,61,139
63,39,6.6,72,61,139
64,39,7,72,61,139
65,39,7.6,72,61,139
66,39,8.2,72,61,139
67,39,9.2,72,61,139
68,39,9.8,72,61,139
69,39,10,72,61,139
70,39,9.8,72,61,139
71,39,9.4,72,61,139
72,39,8.6,72,61,139
73,39,7.8,72,61,139
74,39,7.2,72,61,139
75,39,6.4,72,61,139
76,39,6.2,72,61,139
77,39,6.2,72,61,139
78,39,6.4,72,61,139
79,39,7,72,61,139
80,39,7.8,72,61,139
81,39,8.2,72,61,139
82,39,8.8,72,61,139
83,39,9.6,72,61,139
84,39,10.4,72,61,139
85,39,11.2,72,61,139
86,39,12,0,128,0
87,39,12.8,0,128,0
88,39,13.4,0,128,0
89,39,14,0,128,0
90,39,14.4,0,128,0
91,39,14.6,0,128,0
92,39,14.6,0,128,0
93,39,14.6,0,128,0
94,39,14.8,0,128,0
95,39,15,0,128,0
96,39,15.2,0,128,0
97,39,15.8,0,128,0
98,39,16.2,0,128,0
99,39,17,0,128,0
100,39,17.6,0,128,0
101,39,18.6,0,128,0
102,39,19.4,165,42,42
103,39,20.4,165,42,42
104,39,21.4,165,42,42
105,39,22.2,165,42,42
106,39,22.8,165,42,42
107,39,23.2,165,42,42
108,39,23.6,165,42,42
109,39,23.8,165,42,42
110,39,24,165,42,42
111,39,24.4,165,42,42
112,39,25,165,42,42
113,39,25.6,165,42,42
114,39,26.2,165,42,42
115,39,26.6,255,255,255
116,39,27,255,255,255
117,39,27.4,255,255,255
118,39,27.8,255,255,255
119,39,27.6,255,255,255
120,39,27.4,255,255,255
121,39,27.2,255,255,255
122,39,27,255,255,255
123,39,26.8,255,255,255
124,39,26.6,255,255,255
125,39,26.4,255,255,255
126,39,26,165,42,42
127,39,25.6,165,42,42
0,40,24.6,165,42,42
1,40,23.4,165,42,42
2,40,22.2,165,42,42
3,40,21.2,165,42,42
4,40,20.6,165,42,42
5,40,20,165,42,42
6,40,19.4,165,42,42
7,40,19,0,128,0
8,40,18.4,0,128,0
9,40,17.6,0,128,0
10,40,17,0,128,0
11,40,16.2,0,128,0
12,40,15.6,0,128,0
13,40,15,0,128,0
14,40,14.6,0,128,0
15,40,14.4,0,128,0
16,40,14.4,0,128,0
17,40,14,0,128,0
18,40,13.8,0,128,0
19,40,13.2,0,128,0
20,40,12.8,0,128,0
21,40,12,0,128,0
22,40,11.6,72,61,139
23,40,11.2,72,61,139
24,40,11.2,72,61,139
25,40,11,72,61,139
26,40,10.8,72,61,139
27,40,10.8,72,61,139
28,40,10.6,72,61,139
29,40,11,72,61,139
30,40,11.2,72,61,139
31,40,11.6,72,61,139
32,40,12.2,0,128,0
33,40,12.8,0,128,0
34,40,13.4,0,128,0
35,40,13.6,0,128,0
36,40,14,0,128,0
37,40,14.6,0,128,0
38,40,14.8,0,128,0
39,40,15,0,128,0
40,40,15.2,0,128,0
41,40,15,0,128,0
42,40,14.4,0,128,0
43,40,14,0,128,0
44,40,13.2,0,128,0
45,40,12.4,0,128,0
46,40,11.8,72,61,139
47,40,11.4,72,61,139
48,40,11,72,61,139
49,40,10.8,72,61,139
50,40,10.6,72,61,139
51,40,10.2,72,61,139
52,40,10,72,61,139
53,40,9.6,72,61,139
54,40,9.4,72,61,139
55,40,9.4,72,61,139
56,40,9.4,72,61,139
57,40,9.2,72,61,139
58,40,9.2,72,61,139
59,40,8.8,72,61,139
60,40,8.6,72,61,139
61,40,7.8,72,61,139
62,40,7.2,72,61,139
63,40,7,72,61,139
64,40,7.6,72,61,139
65,40,8,72,61,139
66,40,8.6,72,61,139
67,40,9.4,72,61,139
68,40,9.6,72,61,139
69,40,9.6,72,61,139
70,40,9.4,72,61,139
71,40,9.2,72,61,139
72,40,8.6,72,61,139
73,40,8.2,72,61,139
74,40,7.8,72,61,139
75,40,6.8,72,61,139
76,40,6.4,72,61,139
77,40,6.4,72,61,139
78,40,6.8,72,61,139
79,40,7.4,72,61,139
80,40,8.2,72,61,139
81,40,8.8,72,61,139
82,40,9.2,72,61,139
83,40,10,72,61,139
84,40,10.6,72,61,139
85,40,11.6,72,61,139
86,40,12,0,128,0
87,40,12.6,0,128,0
88,40,13,0,128,0
89,40,13.4,0,128,0
90,40,13.6,0,128,0
91,40,13.6,0,128,0
92,40,13.6,0,128,0
93,40,13.6,0,128,0
94,40,13.4,0,128,0
95,40,13.6,0,128,0
96,40,14,0,128,0
97,40,14.4,0,128,0
98,40,15,0,128,0
99,40,15.8,0,128,0
100,40,16.4,0,128,0
101,40,17.4,0,128,0
102,40,18.4,0,128,0
103,40,19.4,165,42,42
104,40,20.4,165,42,42
105,40,21.2,165,42,42
106,40,22,165,42,42
107,40,22.4,165,42,42
108,40,23,165,42,42
109,40,23.6,165,42,42
110,40,24,165,42,42
111,40,24.6,165,42,42
112,40,25.6,165,42,42
113,40,26,165,42,42
114,40,26.8,255,255,255
115,40,27.4,255,255,255
116,40,27.8,255,255,255
117,40,28.4,255,255,255
118,40,28.6,255,255,255
119,40,28.4,255,255,255
120,40,28.2,255,255,255
121,40,27.8,255,255,255
122,40,27.4,255,255,255
123,40,27.2,255,255,255
124,40,26.8,255,255,255
125,40,26.6,255,255,255
126,40,26.2,165,42,42
127,40,25.6,165,42,42
0,41,24.4,165,42,42
1,41,23.4,165,42,42
2,41,22,165,42,42
3,41,21,165,42,42
4,41,20.2,165,42,42
5,41,19.6,165,42,42
6,41,19,0,128,0
7,41,18.6,0,128,0
8,41,18,0,128,0
9,41,17.2,0,128,0
10,41,16.6,0,128,0
11,41,16,0,128,0
12,41,15.6,0,128,0
13,41,15,0,128,0
14,41,14.8,0,128,0
15,41,14.6,0,128,0
16,41,14.4,0,128,0
17,41,14.2,0,128,0
18,41,13.8,0,128,0
19,41,13.2,0,128,0
20,41,12.2,0,128,0
21,41,11.6,72,61,139
22,41,11.2,72,61,139
23,41,10.8,72,61,139
24,41,10.6,72,61,139
25,41,10.8,72,61,139
26,41,10.6,72,61,139
27,41,10.6,72,61,139
28,41,10.2,72,61,139
29,41,10.2,72,61,139
30,41,10.2,72,61,139
31,41,10.8,72,61,139
32,41,11.2,72,61,139
33,41,11.8,72,61,139
34,41,12.4,0,128,0
35,41,12.6,0,128,0
36,41,12.8,0,128,0
37,41,13.2,0,128,0
38,41,13.6,0,128,0
39,41,14,0,128,0
40,41,14.2,0,128,0
41,41,14.4,0,128,0
42,41,14.4,0,128,0
43,41,14,0,128,0
44,41,13.6,0,128,0
45,41,13,0,128,0
46,41,12.4,0,128,0
47,41,12,0,128,0
48,41,11.8,72,61,139
49,41,11.6,72,61,139
50,41,11.2,72,61,139
51,41,11,72,61,139
52,41,10.6,72,61,139
53,41,10.4,72,61,139
54,41,10.2,72,61,139
55,41,10,72,61,139
56,41,10,72,61,139
57,41,9.8,72,61,139
58,41,9.4,72,61,139
59,41,9,72,61,139
60,41,8.6,72,61,139
61,41,8,72,61,139
62,41,7.6,72,61,139
63,41,7.6,72,61,139
64,41,8.2,72,61,139
65,41,8.8,72,61,139
66,41,9.4,72,61,139
67,41,9.4,72,61,139
68,41,9.6,72,61,139
69,41,9.6,72,61,139
70,41,9.4,72,61,139
71,41,9,72,61,139
72,41,9,72,61,139
73,41,8.8,72,61,139
74,41,8.4,72,61,139
75,41,7.6,72,61,139
76,41,7,72,61,139
77,41,7,72,61,139
78,41,7.4,72,61,139
79,41,8.2,72,61,139
80,41,8.6,72,61,139
81,41,9,72,61,139
82,41,9.6,72,61,139
83,41,10.4,72,61,139
84,41,11.2,72,61,139
85,41,11.6,72,61,139
86,41,12,0,128,0
87,41,12.4,0,128,0
88,41,12.6,0,128,0
89,41,12.8,0,128,0
90,41,12.8,0,128,0
91,41,12.6,0,128,0
92,41,12.4,0,128,0
93,41,12.2,0,128,0
94,41,12,0,128,0
95,41,12.4,0,128,0
96,41,12.6,0,128,0
97,41,13.2,0,128,0
98,41,13.8,0,128,0
99,41,14.6,0,128,0
100,41,15.6,0,128,0
101,41,16.4,0,128,0
102,41,17.2,0,128,0
103,41,18.4,0,128,0
104,41,19.4,165,42,42
105,41,20.4,165,42,42
106,41,21,165,42,42
107,41,21.8,165,42,42
108,41,22.6,165,42,42
109,41,23.2,165,42,42
110,41,24.2,165,42,42
111,41,24.8,165,42,42
112,41,25.8,165,42,42
113,41,26.6,255,255,255
114,41,27.2,255,255,255
115,41,27.8,255,255,255
116,41,28.6,255,255,255
117,41,29.2,255,255,255
118,41,29.4,255,255,255
119,41,29.2,255,255,255
120,41,29,255,255,255
121,41,28.6,255,255,255
122,41,28.2,255,255,255
123,41,27.8,255,255,255
124,41,27.4,255,255,255
125,41,26.8,255,255,255
126,41,26.4,255,255,255
127,41,25.6,165,42,42
0,42,24.8,165,42,42
1,42,23.2,165,42,42
2,42,21.8,165,42,42
3,42,20.6,165,42,42
4,42,19.8,165,42,42
5,42,19.4,165,42,42
6,42,18.8,0,128,0
7,42,18.2,0,128,0
8,42,17.4,0,128,0
9,42,16.8,0,128,0
10,42,16.2,0,128,0
11,42,15.6,0,128,0
12,42,15.2,0,128,0
13,42,14.8,0,128,0
14,42,14.4,0,128,0
15,42,14.4,0,128,0
16,42,14.2,0,128,0
17,42,14,0,128,0
18,42,13.4,0,128,0
19,42,13,0,128,0
20,42,12,0,128,0
21,42,11,72,61,139
22,42,10.6,72,61,139
23,42,10.2,72,61,139
24,42,10.4,72,61,139
25,42,10.4,72,61,139
26,42,10.4,72,61,139
27,42,10.2,72,61,139
28,42,10,72,61,139
29,42,9.6,72,61,139
30,42,9.4,72,61,139
31,42,9.8,72,61,139
32,42,10,72,61,139
33,42,10.6,72,61,139
34,42,11.2,72,61,139
35,42,11.4,72,61,139
36,42,11.8,72,61,139
37,42,12.2,0,128,0
38,42,12.4,0,128,0
39,42,13,0,128,0
40,42,13.4,0,128,0
41,42,13.8,0,128,0
42,42,14,0,128,0
43,42,14,0,128,0
44,42,13.8,0,128,0
45,42,13.6,0,128,0
46,42,13.2,0,128,0
47,42,12.8,0,128,0
48,42,12.4,0,128,0
49,42,12.4,0,128,0
50,42,12,0,128,0
51,42,11.8,72,61,139
52,42,11.4,72,61,139
53,42,11.2,72,61,139
54,42,11,72,61,139
55,42,10.8,72,61,139
56,42,10.6,72,61,139
57,42,10.4,72,61,139
58,42,10.2,72,61,139
59,42,9.8,72,61,139
60,42,9.4,72,61,139
61,42,8.6,72,61,139
62,42,8.2,72,61,139
63,42,8.6,72,61,139
64,42,9.2,72,61,139
65,42,9.6,72,61,139
66,42,10,72,61,139
67,42,10,72,61,139
68,42,10,72,61,139
69,42,9.8,72,61,139
70,42,9.8,72,61,139
71,42,9.6,72,61,139
72,42,9.6,72,61,139
73,42,9.6,72,61,139
74,42,9,72,61,139
75,42,8.2,72,61,139
76,42,7.6,72,61,139
77,42,7.8,72,61,139
78,42,8,72,61,139
79,42,8.6,72,61,139
80,42,9.2,72,61,139
81,42,9.4,72,61,139
82,42,10.2,72,61,139
83,42,11,72,61,139
84,42,11.4,72,61,139
85,42,11.6,72,61,139
86,42,12,0,128,0
87,42,12,0,128,0
88,42,12,0,128,0
89,42,12,0,128,0
90,42,12,0,128,0
91,42,11.6,72,61,139
92,42,11.4,72,61,139
93,42,11,72,61,139
94,42,11,72,61,139
95,42,11.2,72,61,139
96,42,11.6,72,61,139
97,42,12.2,0,128,0
98,42,12.8,0,128,0
99,42,13.6,0,128,0
100,42,14.4,0,128,0
101,42,15.2,0,128,0
102,42,16.4,0,128,0
103,42,17.4,0,128,0
104,42,18.4,0,128,0
105,42,19.4,165,42,42
106,42,20.2,165,42,42
107,42,21.2,165,42,42
108,42,22,165,42,42
109,42,23,165,42,42
110,42,24,165,42,42
111,42,25,165,42,42
112,42,26,165,42,42
113,42,27,255,255,255
114,42,27.8,255,255,255
115,42,28.4,255,255,255
116,42,29.2,255,255,255
117,42,29.6,255,255,255
118,42,30,255,255,255
119,42,30,255,255,255
120,42,29.8,255,255,255
121,42,29.4,255,255,255
122,42,29,255,255,255
123,42,28.6,255,255,255
124,42,27.8,255,255,255
125,42,27.4,255,255,255
126,42,26.6,255,255,255
127,42,25.8,165,42,42
0,43,24.8,165,42,42
1,43,23.2,165,42,42
2,43,21.6,165,42,42
3,43,20.6,165,42,42
4,43,19.6,165,42,42
5,43,19,0,128,0
6,43,18.4,0,128,0
7,43,17.8,0,128,0
8,43,17.2,0,128,0
9,43,16.6,0,128,0
10,43,15.8,0,128,0
11,43,15.2,0,128,0
12,43,14.6,0,128,0
13,43,14.2,0,128,0
14,43,13.8,0,128,0
15,43,13.8,0,128,0
16,43,14,0,128,0
17,43,13.6,0,128,0
18,43,13,0,128,0
19,43,12.4,0,128,0
20,43,11.6,72,61,139
21,43,11,72,61,139
22,43,10.4,72,61,139
23,43,9.8,72,61,139
24,43,9.8,72,61,139
25,43,9.8,72,61,139
26,43,9.6,72,61,139
27,43,9.6,72,61,139
28,43,9.2,72,61,139
29,43,9,72,61,139
30,43,8.6,72,61,139
31,43,8.6,72,61,139
32,43,9,72,61,139
33,43,9.2,72,61,139
34,43,9.6,72,61,139
35,43,10,72,61,139
36,43,10.6,72,61,139
37,43,10.8,72,61,139
38,43,11.4,72,61,139
39,43,12,0,128,0
40,43,12.4,0,128,0
41,43,13,0,128,0
42,43,13.6,0,128,0
43,43,13.8,0,128,0
44,43,13.8,0,128,0
45,43,13.8,0,128,0
46,43,13.8,0,128,0
47,43,13.6,0,128,0
48,43,13.2,0,128,0
49,43,13.2,0,128,0
50,43,12.8,0,128,0
51,43,12.6,0,128,0
52,43,12.2,0,128,0
53,43,11.8,72,61,139
54,43,11.8,72,61,139
55,43,11.8,72,61,139
56,43,12,0,128,0
57,43,11.8,72,61,139
58,43,11.6,72,61,139
59,43,11.4,72,61,139
60,43,11,72,61,139
61,43,10.2,72,61,139
62,43,9.6,72,61,139
63,43,10,72,61,139
64,43,10.4,72,61,139
65,43,10.8,72,61,139
66,43,11,72,61,139
67,43,11.2,72,61,139
68,43,11.2,72,61,139
69,43,10.6,72,61,139
70,43,10.6,72,61,139
71,43,10.6,72,61,139
72,43,10.4,72,61,139
73,43,10.4,72,61,139
74,43,9.8,72,61,139
75,43,9.2,72,61,139
76,43,8.6,72,61,139
77,43,8.6,72,61,139
78,43,8.8,72,61,139
79,43,9.4,72,61,139
80,43,9.8,72,61,139
81,43,10.4,72,61,139
82,43,11,72,61,139
83,43,11.4,72,61,139
84,43,11.8,72,61,139
85,43,11.8,72,61,139
86,43,11.8,72,61,139
87,43,11.6,72,61,139
88,43,11.6,72,61,139
89,43,11.2,72,61,139
90,43,11,72,61,139
91,43,10.8,72,61,139
92,43,10.4,72,61,139
93,43,10.2,72,61,139
94,43,10.2,72,61,139
95,43,10.2,72,61,139
96,43,10.6,72,61,139
97,43,11,72,61,139
98,43,12,0,128,0
99,43,12.8,0,128,0
100,43,13.4,0,128,0
101,43,14.2,0,128,0
102,43,15.4,0,128,0
103,43,16.4,0,128,0
104,43,17.4,0,128,0
105,43,18.4,0,128,0
106,43,19.4,165,42,42
107,43,20.4,165,42,42
108,43,21.4,165,42,42
109,43,22.6,165,42,42
110,43,23.8,165,42,42
111,43,25,165,42,42
112,43,26,165,42,42
113,43,27.2,255,255,255
114,43,28.2,255,255,255
115,43,28.8,255,255,255
116,43,29.8,255,255,255
117,43,30.4,255,255,255
118,43,30.6,255,255,255
119,43,30.8,255,255,255
120,43,30.8,255,255,255
121,43,30.2,255,255,255
122,43,29.8,255,255,255
123,43,29.2,255,255,255
124,43,28.6,255,255,255
125,43,27.8,255,255,255
126,43,27,255,255,255
127,43,26,165,42,42
0,44,24.8,165,42,42
1,44,23,165,42,42
2,44,21.6,165,42,42
3,44,20.4,165,42,42
4,44,19.4,165,42,42
5,44,18.8,0,128,0
6,44,18,0,128,0
7,44,17.6,0,128,0
8,44,17,0,128,0
9,44,16.2,0,128,0
10,44,15.6,0,128,0
11,44,15,0,128,0
12,44,14.4,0,128,0
13,44,13.8,0,128,0
14,44,13.4,0,128,0
15,44,13.4,0,128,0
16,44,13.4,0,128,0
17,44,13,0,128,0
18,44,12.6,0,128,0
19,44,11.8,72,61,139
20,44,11.2,72,61,139
21,44,10.6,72,61,139
22,44,10,72,61,139
23,44,9.4,72,61,139
24,44,9.4,72,61,139
25,44,9,72,61,139
26,44,9,72,61,139
27,44,8.8,72,61,139
28,44,8.4,72,61,139
29,44,8.4,72,61,139
30,44,8,72,61,139
31,44,8,72,61,139
32,44,7.8,72,61,139
33,44,8,72,61,139
34,44,8.2,72,61,139
35,44,8.8,72,61,139
36,44,9.2,72,61,139
37,44,10,72,61,139
38,44,10.2,72,61,139
39,44,11,72,61,139
40,44,11.6,72,61,139
41,44,12.2,0,128,0
42,44,13,0,128,0
43,44,13.4,0,128,0
44,44,13.8,0,128,0
45,44,14,0,128,0
46,44,14.2,0,128,0
47,44,14.2,0,128,0
48,44,14,0,128,0
49,44,13.8,0,128,0
50,44,13.4,0,128,0
51,44,13.2,0,128,0
52,44,13,0,128,0
53,44,12.6,0,128,0
54,44,12.6,0,128,0
55,44,12.8,0,128,0
56,44,13.2,0,128,0
57,44,13.2,0,128,0
58,44,13.2,0,128,0
59,44,13,0,128,0
60,44,12.8,0,128,0
61,44,12.2,0,128,0
62,44,11.8,72,61,139
63,44,11.8,72,61,139
64,44,11.8,72,61,139
65,44,12,0,128,0
66,44,12.2,0,128,0
67,44,12.2,0,128,0
68,44,12.4,0,128,0
69,44,12.2,0,128,0
70,44,12,0,128,0
71,44,12,0,128,0
72,44,11.8,72,61,139
73,44,11.6,72,61,139
74,44,10.8,72,61,139
75,44,10.4,72,61,139
76,44,9.8,72,61,139
77,44,10,72,61,139
78,44,10.2,72,61,139
79,44,10.6,72,61,139
80,44,11,72,61,139
81,44,11.6,72,61,139
82,44,11.8,72,61,139
83,44,12,0,128,0
84,44,12,0,128,0
85,44,11.6,72,61,139
86,44,11.4,72,61,139
87,44,11.2,72,61,139
88,44,10.8,72,61,139
89,44,10.6,72,61,139
90,44,10.2,72,61,139
91,44,9.8,72,61,139
92,44,9.6,72,61,139
93,44,9.4,72,61,139
94,44,9.6,72,61,139
95,44,9.6,72,61,139
96,44,9.6,72,61,139
97,44,10.2,72,61,139
98,44,10.8,72,61,139
99,44,11.6,72,61,139
100,44,12.4,0,128,0
101,44,13.4,0,128,0
102,44,14.4,0,128,0
103,44,15.6,0,128,0
104,44,16.6,0,128,0
105,44,17.6,0,128,0
106,44,18.8,0,128,0
107,44,20,165,42,42
108,44,21,165,42,42
109,44,22.2,165,42,42
110,44,23.6,165,42,42
111,44,24.8,165,42,42
112,44,26.2,165,42,42
113,44,27.4,255,255,255
114,44,28.6,255,255,255
115,44,29.4,255,255,255
116,44,30.2,255,255,255
117,44,30.8,255,255,255
118,44,31.2,255,255,255
119,44,31.6,255,255,255
120,44,31.4,255,255,255
121,44,31,255,255,255
122,44,30.6,255,255,255
123,44,29.8,255,255,255
124,44,29,255,255,255
125,44,28.4,255,255,255
126,44,27.2,255,255,255
127,44,26.2,165,42,42
0,45,24.8,165,42,42
1,45,23,165,42,42
2,45,21.4,165,42,42
3,45,20.2,165,42,42
4,45,19.2,165,42,42
5,45,18.6,0,128,0
6,45,18,0,128,0
7,45,17.6,0,128,0
8,45,16.8,0,128,0
9,45,16.2,0,128,0
10,45,15.6,0,128,0
11,45,14.8,0,128,0
12,45,14.2,0,128,0
13,45,13.6,0,128,0
14,45,13.2,0,128,0
15,45,12.8,0,128,0
16,45,12.8,0,128,0
17,45,12.4,0,128,0
18,45,12.2,0,128,0
19,45,11.6,72,61,139
20,45,10.8,72,61,139
21,45,10.2,72,61,139
22,45,9.4,72,61,139
23,45,9.2,72,61,139
24,45,9,72,61,139
25,45,8.8,72,61,139
26,45,8.6,72,61,139
27,45,8,72,61,139
28,45,7.8,72,61,139
29,45,7.8,72,61,139
30,45,7.4,72,61,139
31,45,7.4,72,61,139
32,45,7.2,72,61,139
33,45,7,72,61,139
34,45,7.2,72,61,139
35,45,7.6,72,61,139
36,45,8.4,72,61,139
37,45,9,72,61,139
38,45,9.6,72,61,139
39,45,10.2,72,61,139
40,45,11,72,61,139
41,45,11.6,72,61,139
42,45,12.4,0,128,0
43,45,13,0,128,0
44,45,13.8,0,128,0
45,45,14.2,0,128,0
46,45,14.6,0,128,0
47,45,14.6,0,128,0
48,45,14.8,0,128,0
49,45,14.6,0,128,0
50,45,14.4,0,128,0
51,45,14,0,128,0
52,45,13.6,0,128,0
53,45,13.6,0,128,0
54,45,13.6,0,128,0
55,45,13.8,0,128,0
56,45,14.2,0,128,0
57,45,14.4,0,128,0
58,45,14.6,0,128,0
59,45,14.6,0,128,0
60,45,14.2,0,128,0
61,45,14,0,128,0
62,45,13.8,0,128,0
63,45,13.4,0,128,0
64,45,13.2,0,128,0
65,45,13.6,0,128,0
66,45,13.4,0,128,0
67,45,13.4,0,128,0
68,45,13.6,0,128,0
69,45,13.8,0,128,0
70,45,13.8,0,128,0
71,45,13.8,0,128,0
72,45,13.4,0,128,0
73,45,13,0,128,0
74,45,12.4,0,128,0
75,45,11.8,72,61,139
76,45,11.4,72,61,139
77,45,11.4,72,61,139
78,45,11.8,72,61,139
79,45,12.2,0,128,0
80,45,12.4,0,128,0
81,45,12.8,0,128,0
82,45,12.8,0,128,0
83,45,12.4,0,128,0
84,45,12,0,128,0
85,45,11.6,72,61,139
86,45,11,72,61,139
87,45,10.4,72,61,139
88,45,10,72,61,139
89,45,9.8,72,61,139
90,45,9.4,72,61,139
91,45,9,72,61,139
92,45,8.8,72,61,139
93,45,8.8,72,61,139
94,45,8.8,72,61,139
95,45,8.8,72,61,139
96,45,9,72,61,139
97,45,9.4,72,61,139
98,45,10,72,61,139
99,45,10.6,72,61,139
100,45,11.4,72,61,139
101,45,12.4,0,128,0
102,45,13.6,0,128,0
103,45,15,0,128,0
104,45,16,0,128,0
105,45,17.2,0,128,0
106,45,18.4,0,128,0
107,45,19.8,165,42,42
108,45,20.8,165,42,42
109,45,22.2,165,42,42
110,45,23.6,165,42,42
111,45,24.8,165,42,42
112,45,26.2,165,42,42
113,45,27.8,255,255,255
114,45,28.8,255,255,255
115,45,29.8,255,255,255
116,45,30.6,255,255,255
117,45,31.2,255,255,255
118,45,31.6,255,255,255
119,45,32,255,255,255
120,45,31.8,255,255,255
121,45,31.4,255,255,255
122,45,31,255,255,255
123,45,30.4,255,255,255
124,45,29.4,255,255,255
125,45,28.6,255,255,255
126,45,27.6,255,255,255
127,45,26.2,165,42,42
0,46,24.8,165,42,42
1,46,22.8,165,42,42
2,46,21.4,165,42,42
3,46,19.8,165,42,42
4,46,19,0,128,0
5,46,18.4,0,128,0
6,46,17.8,0,128,0
7,46,17.2,0,128,0
8,46,16.8,0,128,0
9,46,16.2,0,128,0
10,46,15.6,0,128,0
11,46,14.8,0,128,0
12,46,14,0,128,0
13,46,13.6,0,128,0
14,46,12.8,0,128,0
15,46,12.4,0,128,0
16,46,12.2,0,128,0
17,46,12,0,128,0
18,46,11.8,72,61,139
19,46,11.2,72,61,139
20,46,10.6,72,61,139
21,46,9.8,72,61,139
22,46,9.2,72,61,139
23,46,8.8,72,61,139
24,46,9,72,61,139
25,46,8.8,72,61,139
26,46,8.4,72,61,139
27,46,7.8,72,61,139
28,46,7.4,72,61,139
29,46,7,72,61,139
30,46,7.2,72,61,139
31,46,6.8,72,61,139
32,46,6.4,72,61,139
33,46,6,72,61,139
34,46,6.2,72,61,139
35,46,6.8,72,61,139
36,46,7.6,72,61,139
37,46,8.4,72,61,139
38,46,9.2,72,61,139
39,46,9.8,72,61,139
40,46,10.4,72,61,139
41,46,11.2,72,61,139
42,46,12,0,128,0
43,46,12.8,0,128,0
44,46,13.6,0,128,0
45,46,14.2,0,128,0
46,46,14.6,0,128,0
47,46,15,0,128,0
48,46,15.4,0,128,0
49,46,15.4,0,128,0
50,46,15.2,0,128,0
51,46,15,0,128,0
52,46,14.6,0,128,0
53,46,14.4,0,128,0
54,46,14.2,0,128,0
55,46,14.4,0,128,0
56,46,14.8,0,128,0
57,46,15.4,0,128,0
58,46,15.4,0,128,0
59,46,15.4,0,128,0
60,46,15.2,0,128,0
61,46,15,0,128,0
62,46,14.8,0,128,0
63,46,14.8,0,128,0
64,46,14.6,0,128,0
65,46,14.6,0,128,0
66,46,14.6,0,128,0
67,46,14.8,0,128,0
68,46,15,0,128,0
69,46,15,0,128,0
70,46,15.2,0,128,0
71,46,15.2,0,128,0
72,46,15,0,128,0
73,46,14.6,0,128,0
74,46,14,0,128,0
75,46,13.4,0,128,0
76,46,13.2,0,128,0
77,46,13.4,0,128,0
78,46,13.6,0,128,0
79,46,13.8,0,128,0
80,46,13.8,0,128,0
81,46,13.8,0,128,0
82,46,13.4,0,128,0
83,46,12.8,0,128,0
84,46,12,0,128,0
85,46,11.2,72,61,139
86,46,10.6,72,61,139
87,46,10,72,61,139
88,46,9.4,72,61,139
89,46,9,72,61,139
90,46,8.6,72,61,139
91,46,8.2,72,61,139
92,46,8.2,72,61,139
93,46,8,72,61,139
94,46,8.2,72,61,139
95,46,8.4,72,61,139
96,46,8.4,72,61,139
97,46,8.8,72,61,139
98,46,9.6,72,61,139
99,46,10.4,72,61,139
100,46,11.2,72,61,139
101,46,12.2,0,128,0
102,46,13.2,0,128,0
103,46,14.4,0,128,0
104,46,15.6,0,128,0
105,46,17,0,128,0
106,46,18.2,0,128,0
107,46,19.6,165,42,42
108,46,20.6,165,42,42
109,46,22,165,42,42
110,46,23.4,165,42,42
111,46,25,165,42,42
112,46,26.4,255,255,255
113,46,27.8,255,255,255
114,46,29.2,255,255,255
115,46,30.2,255,255,255
116,46,30.8,255,255,255
117,46,31.4,255,255,255
118,46,32,255,255,255
119,46,32.2,255,255,255
120,46,32.2,255,255,255
121,46,31.8,255,255,255
122,46,31.4,255,255,255
123,46,30.6,255,255,255
124,46,29.8,255,255,255
125,46,28.8,255,255,255
126,46,27.6,255,255,255
127,46,26.4,255,255,255
0,47,24.8,165,42,42
1,47,23,165,42,42
2,47,21.2,165,42,42
3,47,19.8,165,42,42
4,47,19,0,128,0
5,47,18.2,0,128,0
6,47,17.8,0,128,0
7,47,17.2,0,128,0
8,47,16.8,0,128,0
9,47,16.2,0,128,0
10,47,15.6,0,128,0
11,47,15,0,128,0
12,47,14,0,128,0
13,47,13.2,0,128,0
14,47,12.6,0,128,0
15,47,12,0,128,0
16,47,11.6,72,61,139
17,47,11.4,72,61,139
18,47,11.4,72,61,139
19,47,11,72,61,139
20,47,10.4,72,61,139
21,47,9.6,72,61,139
22,47,9.2,72,61,139
23,47,9,72,61,139
24,47,9.2,72,61,139
25,47,8.8,72,61,139
26,47,8.2,72,61,139
27,47,7.4,72,61,139
28,47,7,72,61,139
29,47,7,72,61,139
30,47,6.8,72,61,139
31,47,6.4,72,61,139
32,47,6,72,61,139
33,47,6,72,61,139
34,47,6,72,61,139
35,47,6.6,72,61,139
36,47,7.4,72,61,139
37,47,8,72,61,139
38,47,8.8,72,61,139
39,47,9.4,72,61,139
40,47,10.4,72,61,139
41,47,11,72,61,139
42,47,11.8,72,61,139
43,47,12.6,0,128,0
44,47,13.4,0,128,0
45,47,14,0,128,0
46,47,14.6,0,128,0
47,47,15.2,0,128,0
48,47,15.8,0,128,0
49,47,16.2,0,128,0
50,47,16.2,0,128,0
51,47,16,0,128,0
52,47,15.8,0,128,0
53,47,15.6,0,128,0
54,47,15.4,0,128,0
55,47,15.4,0,128,0
56,47,16,0,128,0
57,47,16.2,0,128,0
58,47,16.4,0,128,0
59,47,16.2,0,128,0
60,47,15.8,0,128,0
61,47,15.6,0,128,0
62,47,15.8,0,128,0
63,47,15.6,0,128,0
64,47,15.6,0,128,0
65,47,15.6,0,128,0
66,47,15.8,0,128,0
67,47,16,0,128,0
68,47,16.2,0,128,0
69,47,16.4,0,128,0
70,47,16.6,0,128,0
71,47,16.4,0,128,0
72,47,16,0,128,0
73,47,15.8,0,128,0
74,47,15.6,0,128,0
75,47,15.2,0,128,0
76,47,15,0,128,0
77,47,15.2,0,128,0
78,47,15.2,0,128,0
79,47,15.4,0,128,0
80,47,15.2,0,128,0
81,47,14.6,0,128,0
82,47,13.8,0,128,0
83,47,12.8,0,128,0
84,47,11.8,72,61,139
85,47,10.6,72,61,139
86,47,9.8,72,61,139
87,47,9.2,72,61,139
88,47,8.8,72,61,139
89,47,8.2,72,61,139
90,47,8,72,61,139
91,47,7.8,72,61,139
92,47,7.6,72,61,139
93,47,7.6,72,61,139
94,47,7.8,72,61,139
95,47,8,72,61,139
96,47,8.2,72,61,139
97,47,8.6,72,61,139
98,47,9.2,72,61,139
99,47,10,72,61,139
100,47,11,72,61,139
101,47,11.8,72,61,139
102,47,13.2,0,128,0
103,47,14.2,0,128,0
104,47,15.6,0,128,0
105,47,17,0,128,0
106,47,18.2,0,128,0
107,47,19.4,165,42,42
108,47,20.8,165,42,42
109,47,22,165,42,42
110,47,23.6,165,42,42
111,47,25,165,42,42
112,47,26.4,255,255,255
113,47,28,255,255,255
114,47,29.2,255,255,255
115,47,30.2,255,255,255
116,47,31.2,255,255,255
117,47,31.8,255,255,255
118,47,32.2,255,255,255
119,47,32.4,255,255,255
120,47,32.4,255,255,255
121,47,32.2,255,255,255
122,47,31.6,255,255,255
123,47,30.8,255,255,255
124,47,29.8,255,255,255
125,47,28.8,255,255,255
126,47,27.8,255,255,255
127,47,26.4,255,255,255
0,48,24.6,165,42,42
1,48,22.8,165,42,42
2,48,21,165,42,42
3,48,19.8,165,42,42
4,48,18.6,0,128,0
5,48,18,0,128,0
6,48,17.4,0,128,0
7,48,17.2,0,128,0
8,48,16.8,0,128,0
9,48,16.2,0,128,0
10,48,15.6,0,128,0
11,48,15,0,128,0
12,48,14.2,0,128,0
13,48,13.4,0,128,0
14,48,12.6,0,128,0
15,48,12,0,128,0
16,48,11.6,72,61,139
17,48,11.4,72,61,139
18,48,11,72,61,139
19,48,10.6,72,61,139
20,48,10.2,72,61,139
21,48,9.8,72,61,139
22,48,9.6,72,61,139
23,48,9.4,72,61,139
24,48,9.2,72,61,139
25,48,8.8,72,61,139
26,48,8.2,72,61,139
27,48,7.4,72,61,139
28,48,6.8,72,61,139
29,48,6.6,72,61,139
30,48,6.4,72,61,139
31,48,6.4,72,61,139
32,48,6,72,61,139
33,48,6,72,61,139
34,48,6.4,72,61,139
35,48,6.8,72,61,139
36,48,7.2,72,61,139
37,48,7.8,72,61,139
38,48,8.6,72,61,139
39,48,9.2,72,61,139
40,48,10.2,72,61,139
41,48,10.8,72,61,139
42,48,11.6,72,61,139
43,48,12.4,0,128,0
44,48,13,0,128,0
45,48,14,0,128,0
46,48,14.6,0,128,0
47,48,15.4,0,128,0
48,48,15.8,0,128,0
49,48,16.6,0,128,0
50,48,16.8,0,128,0
51,48,17,0,128,0
52,48,16.8,0,128,0
53,48,16.6,0,128,0
54,48,16.6,0,128,0
55,48,16.8,0,128,0
56,48,17,0,128,0
57,48,17.2,0,128,0
58,48,17.2,0,128,0
59,48,16.8,0,128,0
60,48,16.4,0,128,0
61,48,16.2,0,128,0
62,48,16.4,0,128,0
63,48,16.2,0,128,0
64,48,16.4,0,128,0
65,48,16.4,0,128,0
66,48,16.4,0,128,0
67,48,16.8,0,128,0
68,48,17.2,0,128,0
69,48,17.4,0,128,0
70,48,17.4,0,128,0
71,48,17.2,0,128,0
72,48,17,0,128,0
73,48,16.8,0,128,0
74,48,16.8,0,128,0
75,48,16.8,0,128,0
76,48,16.6,0,128,0
77,48,16.8,0,128,0
78,48,16.6,0,128,0
79,48,16.4,0,128,0
80,48,16,0,128,0
81,48,15.2,0,128,0
82,48,14,0,128,0
83,48,12.6,0,128,0
84,48,11.2,72,61,139
85,48,10.2,72,61,139
86,48,9.2,72,61,139
87,48,8.6,72,61,139
88,48,8.2,72,61,139
89,48,7.8,72,61,139
90,48,7.4,72,61,139
91,48,7.4,72,61,139
92,48,7,72,61,139
93,48,7.2,72,61,139
94,48,7.4,72,61,139
95,48,7.8,72,61,139
96,48,8.2,72,61,139
97,48,8.6,72,61,139
98,48,9.4,72,61,139
99,48,10,72,61,139
100,48,11.2,72,61,139
101,48,12,0,128,0
102,48,13,0,128,0
103,48,14.2,0,128,0
104,48,15.6,0,128,0
105,48,17,0,128,0
106,48,18.4,0,128,0
107,48,19.6,165,42,42
108,48,20.8,165,42,42
109,48,22.4,165,42,42
110,48,23.6,165,42,42
111,48,25.2,165,42,42
112,48,26.8,255,255,255
113,48,28.2,255,255,255
114,48,29.4,255,255,255
115,48,30.4,255,255,255
116,48,31.2,255,255,255
117,48,31.8,255,255,255
118,48,32.2,255,255,255
119,48,32.4,255,255,255
120,48,32.4,255,255,255
121,48,32.2,255,255,255
122,48,31.6,255,255,255
123,48,30.8,255,255,255
124,48,30,255,255,255
125,48,29,255,255,255
126,48,27.8,255,255,255
127,48,26.4,255,255,255
0,49,24.4,165,42,42
1,49,22.4,165,42,42
2,49,20.8,165,42,42
3,49,19.4,165,42,42
4,49,18.4,0,128,0
5,49,17.8,0,128,0
6,49,17.2,0,128,0
7,49,16.8,0,128,0
8,49,16.4,0,128,0
9,49,16.2,0,128,0
10,49,15.6,0,128,0
11,49,15,0,128,0
12,49,14.2,0,128,0
13,49,13.4,0,128,0
14,49,12.6,0,128,0
15,49,12,0,128,0
16,49,11.6,72,61,139
17,49,11.4,72,61,139
18,49,10.8,72,61,139
19,49,10.4,72,61,139
20,49,10.2,72,61,139
21,49,9.8,72,61,139
22,49,9.8,72,61,139
23,49,9.6,72,61,139
24,49,9.4,72,61,139
25,49,9.2,72,61,139
26,49,8.6,72,61,139
27,49,7.6,72,61,139
28,49,6.8,72,61,139
29,49,6.4,72,61,139
30,49,6.2,72,61,139
31,49,6.2,72,61,139
32,49,6,72,61,139
33,49,6.2,72,61,139
34,49,6.4,72,61,139
35,49,7,72,61,139
36,49,7.4,72,61,139
37,49,7.8,72,61,139
38,49,8.4,72,61,139
39,49,9,72,61,139
40,49,9.8,72,61,139
41,49,10.6,72,61,139
42,49,11.4,72,61,139
43,49,12,0,128,0
44,49,12.8,0,128,0
45,49,13.6,0,128,0
46,49,14.4,0,128,0
47,49,15.4,0,128,0
48,49,16,0,128,0
49,49,16.6,0,128,0
50,49,17.4,0,128,0
51,49,17.6,0,128,0
52,49,17.8,0,128,0
53,49,17.8,0,128,0
54,49,18,0,128,0
55,49,18,0,128,0
56,49,18.2,0,128,0
57,49,18.2,0,128,0
58,49,18,0,128,0
59,49,17.6,0,128,0
60,49,17,0,128,0
61,49,16.8,0,128,0
62,49,17,0,128,0
63,49,16.8,0,128,0
64,49,16.8,0,128,0
65,49,17,0,128,0
66,49,17.2,0,128,0
67,49,17.4,0,128,0
68,49,17.6,0,128,0
69,49,17.6,0,128,0
70,49,17.6,0,128,0
71,49,17.6,0,128,0
72,49,17.8,0,128,0
73,49,17.8,0,128,0
74,49,17.8,0,128,0
75,49,18,0,128,0
76,49,17.8,0,128,0
77,49,18,0,128,0
78,49,17.8,0,128,0
79,49,17.4,0,128,0
80,49,16.4,0,128,0
81,49,15.2,0,128,0
82,49,13.8,0,128,0
83,49,12.2,0,128,0
84,49,10.8,72,61,139
85,49,9.6,72,61,139
86,49,8.8,72,61,139
87,49,8,72,61,139
88,49,7.4,72,61,139
89,49,7,72,61,139
90,49,6.8,72,61,139
91,49,6.8,72,61,139
92,49,7,72,61,139
93,49,7,72,61,139
94,49,7.4,72,61,139
95,49,8,72,61,139
96,49,8.6,72,61,139
97,49,9.2,72,61,139
98,49,9.6,72,61,139
99,49,10.4,72,61,139
100,49,11,72,61,139
101,49,12.2,0,128,0
102,49,13.2,0,128,0
103,49,14.4,0,128,0
104,49,15.8,0,128,0
105,49,16.8,0,128,0
106,49,18.2,0,128,0
107,49,19.8,165,42,42
108,49,21.2,165,42,42
109,49,22.8,165,42,42
110,49,24,165,42,42
111,49,25.6,165,42,42
112,49,27,255,255,255
113,49,28.2,255,255,255
114,49,29.6,255,255,255
115,49,30.6,255,255,255
116,49,31.2,255,255,255
117,49,31.8,255,255,255
118,49,32.2,255,255,255
119,49,32.4,255,255,255
120,49,32.4,255,255,255
121,49,32.2,255,255,255
122,49,31.6,255,255,255
123,49,31,255,255,255
124,49,30,255,255,255
125,49,29,255,255,255
126,49,27.8,255,255,255
127,49,26.2,165,42,42
0,50,24.4,165,42,42
1,50,22.4,165,42,42
2,50,20.8,165,42,42
3,50,19.2,165,42,42
4,50,18.4,0,128,0
5,50,17.8,0,128,0
6,50,17.2,0,128,0
7,50,16.8,0,128,0
8,50,16.4,0,128,0
9,50,16,0,128,0
10,50,15.6,0,128,0
11,50,15,0,128,0
12,50,14.4,0,128,0
13,50,13.6,0,128,0
14,50,12.6,0,128,0
15,50,12,0,128,0
16,50,11.4,72,61,139
17,50,11.2,72,61,139
18,50,10.8,72,61,139
19,50,10.4,72,61,139
20,50,10,72,61,139
21,50,10,72,61,139
22,50,9.8,72,61,139
23,50,9.8,72,61,139
24,50,9.4,72,61,139
25,50,9.2,72,61,139
26,50,8.8,72,61,139
27,50,8,72,61,139
28,50,6.8,72,61,139
29,50,6.2,72,61,139
30,50,6,72,61,139
31,50,5.8,72,61,139
32,50,5.8,72,61,139
33,50,5.6,72,61,139
34,50,6.2,72,61,139
35,50,6.8,72,61,139
36,50,7.4,72,61,139
37,50,7.6,72,61,139
38,50,8,72,61,139
39,50,8.8,72,61,139
40,50,9.4,72,61,139
41,50,10.2,72,61,139
42,50,11,72,61,139
43,50,12,0,128,0
44,50,12.6,0,128,0
45,50,13.4,0,128,0
46,50,14.2,0,128,0
47,50,15,0,128,0
48,50,16,0,128,0
49,50,17,0,128,0
50,50,17.6,0,128,0
51,50,18.2,0,128,0
52,50,18.6,0,128,0
53,50,18.8,0,128,0
54,50,19.2,165,42,42
55,50,19.4,165,42,42
56,50,19.4,165,42,42
57,50,19.2,165,42,42
58,50,18.6,0,128,0
59,50,18.2,0,128,0
60,50,17.8,0,128,0
61,50,17.8,0,128,0
62,50,17.6,0,128,0
63,50,17.4,0,128,0
64,50,17.4,0,128,0
65,50,17.6,0,128,0
66,50,17.6,0,128,0
67,50,17.8,0,128,0
68,50,17.8,0,128,0
69,50,17.8,0,128,0
70,50,17.8,0,128,0
71,50,18,0,128,0
72,50,18.4,0,128,0
73,50,18.6,0,128,0
74,50,18.8,0,128,0
75,50,18.8,0,128,0
76,50,19,0,128,0
77,50,18.8,0,128,0
78,50,18.4,0,128,0
79,50,17.6,0,128,0
80,50,16.6,0,128,0
81,50,15.2,0,128,0
82,50,13.6,0,128,0
83,50,11.8,72,61,139
84,50,10.4,72,61,139
85,50,9.2,72,61,139
86,50,8.2,72,61,139
87,50,7.4,72,61,139
88,50,7,72,61,139
89,50,6.4,72,61,139
90,50,6.6,72,61,139
91,50,6.6,72,61,139
92,50,7,72,61,139
93,50,7,72,61,139
94,50,7.6,72,61,139
95,50,8.2,72,61,139
96,50,9,72,61,139
97,50,9.6,72,61,139
98,50,10,72,61,139
99,50,10.6,72,61,139
100,50,11.6,72,61,139
101,50,12.8,0,128,0
102,50,13.8,0,128,0
103,50,15,0,128,0
104,50,16,0,128,0
105,50,17,0,128,0
106,50,18.4,0,128,0
107,50,19.8,165,42,42
108,50,21.6,165,42,42
109,50,23,165,42,42
110,50,24.4,165,42,42
111,50,26,165,42,42
112,50,27.4,255,255,255
113,50,28.6,255,255,255
114,50,29.6,255,255,255
115,50,30.4,255,255,255
116,50,31.2,255,255,255
117,50,31.8,255,255,255
118,50,32.2,255,255,255
119,50,32.2,255,255,255
120,50,32.4,255,255,255
121,50,32,255,255,255
122,50,31.8,255,255,255
123,50,31,255,255,255
124,50,30.2,255,255,255
125,50,29,255,255,255
126,50,27.8,255,255,255
127,50,26.2,165,42,42
0,51,24.2,165,42,42
1,51,22.4,165,42,42
2,51,20.6,165,42,42
3,51,19.2,165,42,42
4,51,18.2,0,128,0
5,51,17.6,0,128,0
6,51,17,0,128,0
7,51,16.6,0,128,0
8,51,16.4,0,128,0
9,51,16,0,128,0
10,51,15.8,0,128,0
11,51,15,0,128,0
12,51,14.4,0,128,0
13,51,13.4,0,128,0
14,51,12.4,0,128,0
15,51,11.6,72,61,139
16,51,11.2,72,61,139
17,51,11,72,61,139
18,51,10.8,72,61,139
19,51,10.2,72,61,139
20,51,10,72,61,139
21,51,10,72,61,139
22,51,10,72,61,139
23,51,10,72,61,139
24,51,9.8,72,61,139
25,51,9.4,72,61,139
26,51,9,72,61,139
27,51,8.2,72,61,139
28,51,7.2,72,61,139
29,51,6.2,72,61,139
30,51,5.6,72,61,139
31,51,5.4,72,61,139
32,51,5.2,72,61,139
33,51,5.4,72,61,139
34,51,5.8,72,61,139
35,51,6.4,72,61,139
36,51,6.8,72,61,139
37,51,7.4,72,61,139
38,51,7.8,72,61,139
39,51,8.4,72,61,139
40,51,9,72,61,139
41,51,9.8,72,61,139
42,51,10.8,72,61,139
43,51,11.4,72,61,139
44,51,12.2,0,128,0
45,51,13.2,0,128,0
46,51,14.2,0,128,0
47,51,15,0,128,0
48,51,15.8,0,128,0
49,51,16.8,0,128,0
50,51,17.8,0,128,0
51,51,18.4,0,128,0
52,51,19.2,165,42,42
53,51,19.8,165,42,42
54,51,20.2,165,42,42
55,51,20.6,165,42,42
56,51,20.6,165,42,42
57,51,20.2,165,42,42
58,51,19.8,165,42,42
59,51,19.2,165,42,42
60,51,18.6,0,128,0
61,51,18.4,0,128,0
62,51,18.2,0,128,0
63,51,17.8,0,128,0
64,51,17.8,0,128,0
65,51,17.8,0,128,0
66,51,18,0,128,0
67,51,18.2,0,128,0
68,51,18,0,128,0
69,51,18,0,128,0
70,51,18,0,128,0
71,51,18.4,0,128,0
72,51,19,0,128,0
73,51,19.4,165,42,42
74,51,19.6,165,42,42
75,51,19.4,165,42,42
76,51,19.6,165,42,42
77,51,19.2,165,42,42
78,51,18.8,0,128,0
79,51,17.8,0,128,0
80,51,16.6,0,128,0
81,51,15,0,128,0
82,51,13.4,0,128,0
83,51,11.6,72,61,139
84,51,10,72,61,139
85,51,8.8,72,61,139
86,51,8,72,61,139
87,51,7,72,61,139
88,51,6.6,72,61,139
89,51,6.2,72,61,139
90,51,6.4,72,61,139
91,51,6.4,72,61,139
92,51,6.8,72,61,139
93,51,7,72,61,139
94,51,7.6,72,61,139
95,51,8.4,72,61,139
96,51,9.2,72,61,139
97,51,9.8,72,61,139
98,51,10.2,72,61,139
99,51,10.8,72,61,139
100,51,11.8,72,61,139
101,51,13.2,0,128,0
102,51,14.4,0,128,0
103,51,15.2,0,128,0
104,51,16,0,128,0
105,51,17.4,0,128,0
106,51,18.8,0,128,0
107,51,20.2,165,42,42
108,51,21.8,165,42,42
109,51,23.4,165,42,42
110,51,24.8,165,42,42
111,51,26.2,165,42,42
112,51,27.4,255,255,255
113,51,28.4,255,255,255
114,51,29.6,255,255,255
115,51,30.2,255,255,255
116,51,31,255,255,255
117,51,31.4,255,255,255
118,51,31.8,255,255,255
119,51,31.8,255,255,255
120,51,32,255,255,255
121,51,31.8,255,255,255
122,51,31.6,255,255,255
123,51,31,255,255,255
124,51,30.2,255,255,255
125,51,29.2,255,255,255
126,51,27.8,255,255,255
127,51,26.2,165,42,42
0,52,24,165,42,42
1,52,22,165,42,42
2,52,20.4,165,42,42
3,52,19.2,165,42,42
4,52,18.2,0,128,0
5,52,17.4,0,128,0
6,52,17,0,128,0
7,52,16.6,0,128,0
8,52,16.2,0,128,0
9,52,16,0,128,0
10,52,15.8,0,128,0
11,52,15.2,0,128,0
12,52,14.4,0,128,0
13,52,13.4,0,128,0
14,52,12.2,0,128,0
15,52,11.4,72,61,139
16,52,11,72,61,139
17,52,11,72,61,139
18,52,10.6,72,61,139
19,52,10.4,72,61,139
20,52,10.2,72,61,139
21,52,10.2,72,61,139
22,52,10,72,61,139
23,52,10,72,61,139
24,52,10,72,61,139
25,52,9.8,72,61,139
26,52,9,72,61,139
27,52,8.2,72,61,139
28,52,6.8,72,61,139
29,52,6,72,61,139
30,52,5.6,72,61,139
31,52,5.2,72,61,139
32,52,5,72,61,139
33,52,5,72,61,139
34,52,5.2,72,61,139
35,52,5.6,72,61,139
36,52,6,72,61,139
37,52,6.8,72,61,139
38,52,7.6,72,61,139
39,52,8.2,72,61,139
40,52,8.8,72,61,139
41,52,9.4,72,61,139
42,52,10.4,72,61,139
43,52,11.2,72,61,139
44,52,12.2,0,128,0
45,52,13,0,128,0
46,52,13.8,0,128,0
47,52,15,0,128,0
48,52,15.8,0,128,0
49,52,16.8,0,128,0
50,52,17.8,0,128,0
51,52,18.8,0,128,0
52,52,19.6,165,42,42
53,52,20.6,165,42,42
54,52,21,165,42,42
55,52,21.4,165,42,42
56,52,21.4,165,42,42
57,52,21.2,165,42,42
58,52,20.6,165,42,42
59,52,20,165,42,42
60,52,19.4,165,42,42
61,52,19,0,128,0
62,52,18.6,0,128,0
63,52,18.2,0,128,0
64,52,18.2,0,128,0
65,52,18,0,128,0
66,52,18.2,0,128,0
67,52,18.6,0,128,0
68,52,18.4,0,128,0
69,52,18.4,0,128,0
70,52,18.6,0,128,0
71,52,19,0,128,0
72,52,19.6,165,42,42
73,52,19.8,165,42,42
74,52,20,165,42,42
75,52,20,165,42,42
76,52,19.8,165,42,42
77,52,19.4,165,42,42
78,52,18.8,0,128,0
79,52,17.8,0,128,0
80,52,16.6,0,128,0
81,52,15,0,128,0
82,52,13.4,0,128,0
83,52,11.4,72,61,139
84,52,10,72,61,139
85,52,8.8,72,61,139
86,52,7.8,72,61,139
87,52,7.2,72,61,139
88,52,6.4,72,61,139
89,52,6.2,72,61,139
